-0.057888 -0.099944 0.504635
-0.057734 -0.098815 0.503713
-0.057734 -0.098815 0.503713
-0.057258 -0.098939 0.503875
-0.057884 -0.109861 0.513434
-0.057884 -0.109861 0.513434
-0.054750 -0.105904 0.509779
-0.052163 -0.095820 0.500838
-0.049063 -0.102219 0.505954
-0.047992 -0.107302 0.510360
-0.046864 -0.111671 0.513912
-0.046518 -0.112132 0.513371
-0.043330 -0.086126 0.489907
-0.042744 -0.086501 0.490370
-0.040649 -0.092087 0.495501
-0.040649 -0.092087 0.495501
-0.040655 -0.092877 0.495917
-0.040203 -0.123749 0.504148
-0.039358 -0.102079 0.504755
-0.039638 -0.108673 0.510550
-0.038855 -0.123175 0.503910
-0.039339 -0.108181 0.510535
-0.038809 -0.122428 0.504144
-0.037335 -0.123291 0.503580
-0.036815 -0.125193 0.503695
-0.034514 -0.088794 0.491975
-0.034793 -0.124593 0.503151
-0.034174 -0.098762 0.501414
-0.033510 -0.124186 0.503516
-0.034060 -0.113648 0.514415
-0.033237 -0.125346 0.502981
-0.033368 -0.113757 0.514350
-0.033368 -0.113757 0.514350
-0.032593 -0.124186 0.503272
-0.031796 -0.093710 0.496458
-0.031796 -0.093710 0.496458
-0.031629 -0.124152 0.503309
-0.031629 -0.124152 0.503309
-0.031587 -0.124284 0.503122
-0.030982 -0.102764 0.505038
-0.030347 -0.123482 0.503171
-0.030347 -0.123482 0.503171
-0.030120 -0.125445 0.502928
-0.029616 -0.123085 0.503485
-0.029616 -0.123085 0.503485
-0.029409 -0.123852 0.503674
-0.029295 -0.123701 0.503284
-0.027821 -0.082783 0.483971
-0.028782 -0.122433 0.504340
-0.028394 -0.098600 0.500719
-0.028448 -0.124666 0.502843
-0.028448 -0.124666 0.502843
-0.027203 -0.123826 0.503133
-0.027203 -0.123826 0.503133
-0.025898 -0.089314 0.491003
-0.026414 -0.123235 0.503142
-0.025170 -0.100476 0.502202
-0.021777 -0.106828 0.507689
-0.019256 -0.100048 0.501014
-0.018892 -0.098208 0.499667
-0.016709 -0.103987 0.504826
-0.016599 -0.100175 0.502786
-0.016187 -0.095131 0.496228
-0.016545 -0.112378 0.512244
-0.014861 -0.112025 0.512202
-0.010977 -0.058292 0.446807
-0.009600 -0.032483 0.401107
-0.010006 -0.099377 0.500041
-0.007600 -0.103229 0.503528
-0.007480 -0.102265 0.502570
-0.006333 -0.086603 0.485636
-0.005712 -0.086398 0.485702
-0.002584 -0.100782 0.501668
0.001291 -0.098090 0.497900
0.001291 -0.098090 0.497900
0.002346 -0.116010 0.513786
0.004472 -0.104793 0.503687
0.004664 -0.110365 0.509238
0.004761 -0.084568 0.483947
0.005525 -0.110641 0.509566
0.006019 -0.110919 0.509403
0.007558 -0.105523 0.504435
0.008216 -0.108364 0.507503
0.009728 -0.089621 0.487246
0.010746 -0.089132 0.486926
0.010856 -0.089758 0.487176
0.010856 -0.089758 0.487176
0.012764 -0.109719 0.508874
0.021809 -0.118949 0.516246
0.022492 -0.124681 0.518340
0.023126 -0.119026 0.516044
0.025214 -0.119497 0.516666
0.025126 -0.112586 0.509882
0.025126 -0.112586 0.509882
0.031496 -0.120432 0.517169
0.031496 -0.120432 0.517169
0.030956 -0.107352 0.504985
0.030177 -0.093721 0.489802
0.032670 -0.115620 0.512103
0.034565 -0.115475 0.512397
0.034397 -0.109865 0.507395
0.036317 -0.117410 0.514204
0.041855 -0.110778 0.508139
0.043893 -0.122736 0.518735
0.043630 -0.116993 0.513570
0.043986 -0.115770 0.512412
0.044800 -0.117326 0.513355
0.044841 -0.116645 0.512916
0.044850 -0.115778 0.513022
0.044828 -0.129534 0.499081
0.047485 -0.127353 0.522939
0.048214 -0.127110 0.522900
0.047815 -0.121735 0.518236
0.048844 -0.126664 0.522536
0.047158 -0.106882 0.503597
0.049538 -0.127959 0.523626
0.049538 -0.127959 0.523626
0.048936 -0.117345 0.513514
0.050061 -0.126781 0.522550
0.047003 -0.093914 0.490519
0.050612 -0.128415 0.523782
0.050824 -0.127617 0.523148
0.048471 -0.102751 0.498791
0.050994 -0.126967 0.522741
0.050994 -0.126967 0.522741
0.051248 -0.128061 0.523436
0.053556 -0.128080 0.523549
0.051456 -0.131311 0.498550
0.054136 -0.127852 0.523441
0.054136 -0.127852 0.523441
0.054543 -0.128971 0.524238
0.046009 -0.063724 0.439851
0.046051 -0.063563 0.439842
0.055526 -0.128140 0.523591
0.055526 -0.128140 0.523591
0.056357 -0.129026 0.524056
0.056357 -0.129026 0.524056
0.056545 -0.127555 0.523544
0.054589 -0.097213 0.492511
0.059192 -0.128796 0.524140
0.059878 -0.128713 0.524480
0.059875 -0.125151 0.521684
0.060377 -0.128324 0.524022
0.060377 -0.128324 0.524022
0.060551 -0.130611 0.524891
0.058822 -0.113079 0.509248
0.060895 -0.128713 0.524056
0.061383 -0.129164 0.524432
0.061383 -0.129164 0.524432
0.061910 -0.129785 0.524912
0.062217 -0.128437 0.524283
0.062516 -0.129412 0.524655
0.059771 -0.102311 0.497931
0.063082 -0.118183 0.514184
0.061226 -0.103215 0.498103
0.061862 -0.131930 0.499035
0.062683 -0.131752 0.499068
0.065344 -0.120961 0.516670
0.063441 -0.131049 0.498564
0.063441 -0.131049 0.498564
0.062955 -0.096441 0.492030
0.064044 -0.135056 0.499226
0.064351 -0.104494 0.499837
0.066691 -0.117078 0.513620
0.066691 -0.117078 0.513620
0.065079 -0.105826 0.501305
0.067257 -0.118862 0.514218
0.066944 -0.114711 0.510810
0.066199 -0.099535 0.494209
0.066199 -0.099535 0.494209
0.072462 -0.120014 0.515877
0.070533 -0.097243 0.493377
0.070556 -0.097156 0.493014
0.073983 -0.119473 0.515822
0.072078 -0.107082 0.502296
0.072322 -0.135143 0.499580
0.071389 -0.096975 0.492884
0.072217 -0.097256 0.491124
0.076379 -0.098726 0.495682
0.077571 -0.098322 0.494158
0.091293 -0.143222 0.561956
0.088294 -0.153387 0.496425
0.088294 -0.153387 0.496425
0.099176 -0.134212 0.523613
0.099476 -0.094152 0.495267
0.103064 -0.094619 0.502496
0.100640 -0.094741 0.486714
0.110301 -0.133841 0.525767
0.114331 -0.130903 0.524531
0.099926 -0.071743 0.455432
0.125456 -0.141339 0.529777
0.141064 -0.142009 0.529616
0.141690 -0.142784 0.529141
0.142939 -0.150103 0.531204
0.143000 -0.142782 0.529535
0.143567 -0.144195 0.529179
0.145196 -0.143161 0.530037
0.133430 -0.087911 0.482176
0.147418 -0.153805 0.529413
0.148465 -0.143910 0.529776
0.141289 -0.103986 0.504291
0.103551 -0.006044 0.363543
0.138557 -0.097627 0.477355
0.139949 -0.083808 0.476762
0.106720 -0.005744 0.362501
0.156292 -0.141591 0.528206
0.141552 -0.089938 0.473971
0.142170 -0.096182 0.474254
0.105630 0.003453 0.352456
0.161222 -0.142479 0.532641
0.161861 -0.143192 0.533035
0.162228 -0.142553 0.532925
0.183832 -0.193517 0.598874
0.158112 -0.133680 0.514490
0.153382 -0.088022 0.497391
0.167462 -0.154220 0.542187
0.167381 -0.154183 0.541737
0.167831 -0.155788 0.539275
0.161509 -0.132610 0.512687
0.163035 -0.133251 0.512952
0.162991 -0.132105 0.512011
0.162455 -0.128075 0.507773
0.166469 -0.132903 0.512439
0.166740 -0.131245 0.510332
0.154167 -0.085691 0.468259
0.165444 -0.124128 0.502231
0.179655 -0.159387 0.545067
0.163839 -0.120084 0.496822
0.154515 -0.087729 0.468426
0.163872 -0.120218 0.496154
0.164340 -0.120281 0.496650
0.192275 -0.186837 0.580418
0.169719 -0.131682 0.510720
0.165938 -0.119719 0.495869
0.169152 -0.126516 0.504340
0.171114 -0.131544 0.510167
0.166776 -0.119819 0.495498
0.167252 -0.120350 0.496258
0.165577 -0.120109 0.491248
0.170791 -0.127456 0.505016
0.170791 -0.127456 0.505016
0.171613 -0.129046 0.507261
0.171547 -0.127395 0.505261
0.168187 -0.118731 0.494564
0.168865 -0.120121 0.495800
0.168865 -0.120121 0.495800
0.169503 -0.119900 0.495295
0.171161 -0.122634 0.499845
0.185049 -0.155213 0.536109
0.173085 -0.121379 0.497723
0.177238 -0.131635 0.509478
0.177238 -0.131635 0.509478
0.207547 -0.189023 0.594534
0.163912 -0.085887 0.469493
0.190553 -0.159258 0.543075
0.178619 -0.130055 0.507424
0.178735 -0.128986 0.506161
0.178735 -0.128986 0.506161
0.192294 -0.158989 0.542788
0.177039 -0.123638 0.499545
0.165626 -0.092241 0.467224
0.178993 -0.125109 0.501879
0.179220 -0.124652 0.501270
0.189808 -0.140937 0.529018
0.182399 -0.128314 0.504443
0.182399 -0.128314 0.504443
0.130536 -0.006774 0.360912
0.170811 -0.082349 0.469914
0.182983 -0.125537 0.501481
0.184262 -0.128410 0.504915
0.185005 -0.129151 0.505627
0.183156 -0.124731 0.499843
0.184442 -0.126626 0.502433
0.194985 -0.140143 0.529962
0.172736 -0.084016 0.469245
0.185847 -0.127924 0.503878
0.173624 -0.083998 0.469795
0.187469 -0.129227 0.504608
0.187469 -0.129227 0.504608
0.187800 -0.128533 0.503913
0.187519 -0.126096 0.501490
0.189467 -0.127471 0.502674
0.179947 -0.083249 0.465802
0.177200 -0.084657 0.457632
0.181218 -0.084935 0.454136
0.198644 -0.058283 0.422231
0.199269 -0.057250 0.420814
0.194598 -0.049259 0.410471
0.199606 -0.056169 0.419512
0.200195 -0.057140 0.420730
0.200195 -0.057140 0.420730
0.190280 -0.040916 0.398841
0.196211 -0.050117 0.411079
0.200648 -0.057059 0.420273
0.200648 -0.057059 0.420273
0.195925 -0.049317 0.410173
0.200337 -0.056123 0.419366
0.203788 -0.060943 0.426505
0.196323 -0.048399 0.409203
0.201230 -0.056100 0.419181
0.194438 -0.045239 0.404625
0.191697 -0.040863 0.398495
0.195297 -0.045250 0.404541
0.195297 -0.045250 0.404541
0.198064 -0.044787 0.404136
0.204898 -0.054208 0.415914
0.204418 -0.053217 0.414536
0.208892 -0.057021 0.419457
0.208892 -0.057021 0.419457
0.450190 -0.121015 0.903266
0.209204 -0.057470 0.419690
0.209281 -0.056934 0.419264
0.209829 -0.057363 0.419364
0.198833 -0.040457 0.396761
0.198833 -0.040457 0.396761
0.260383 -0.070560 0.517319
0.206312 -0.049551 0.409256
0.205165 -0.044834 0.402886
0.213924 -0.056375 0.418119
0.290955 -0.076105 0.568121
0.228568 -0.060624 0.446349
0.205726 -0.041275 0.396705
0.232488 -0.058409 0.446927
0.212715 -0.049754 0.408378
0.212715 -0.049754 0.408378
0.212375 -0.049134 0.407645
0.230152 -0.061487 0.441675
0.213270 -0.049689 0.408553
0.204666 -0.036511 0.390707
0.204666 -0.036511 0.390707
0.229735 -0.061934 0.437629
0.472805 -0.120369 0.899942
0.219705 -0.057251 0.418182
0.205695 -0.036477 0.390599
0.205695 -0.036477 0.390599
0.250813 -0.141980 0.475975
0.220246 -0.057152 0.417732
0.220055 -0.056299 0.417191
0.217168 -0.052321 0.411612
0.169310 0.024630 0.320657
0.217314 -0.051508 0.411010
0.254818 -0.144476 0.480910
0.279846 -0.175063 0.526811
0.278887 -0.163942 0.522680
0.278887 -0.163942 0.522680
0.218354 -0.050790 0.409439
0.249959 -0.140158 0.466728
0.208643 -0.034816 0.388430
0.213377 -0.041604 0.396521
0.213280 -0.041127 0.396254
0.213280 -0.041127 0.396254
0.242278 -0.059786 0.449848
0.224859 -0.056963 0.417511
0.284234 -0.174261 0.527371
0.280073 -0.162353 0.519126
0.284078 -0.175135 0.526520
0.424168 -0.105108 0.786120
0.213509 -0.040703 0.395651
0.341938 -0.084781 0.632658
0.225249 -0.056621 0.416676
0.285245 -0.175291 0.526489
0.225851 -0.056728 0.417087
0.225135 -0.055638 0.415392
0.226583 -0.056930 0.417043
0.285084 -0.175788 0.523760
0.286622 -0.173280 0.526088
0.224859 -0.053270 0.412215
0.224419 -0.052716 0.411293
0.226727 -0.055656 0.415317
0.219482 -0.045100 0.401276
0.286485 -0.178286 0.522296
0.288478 -0.177711 0.522873
0.230315 -0.055071 0.414429
0.380259 -0.091349 0.683345
0.226660 -0.049170 0.405966
0.232163 -0.052875 0.410532
0.216240 -0.029346 0.379985
0.282943 -0.070019 0.494508
0.232280 -0.050491 0.405962
0.237481 -0.055982 0.414827
0.225871 -0.030364 0.394124
0.238029 -0.056347 0.414953
0.232911 -0.048820 0.404863
0.251037 -0.049905 0.434691
0.246349 -0.074551 0.424960
0.255764 -0.058545 0.440478
0.247138 -0.075020 0.425096
0.248577 -0.104497 0.427266
0.248577 -0.104497 0.427266
0.248508 -0.104412 0.426865
0.247744 -0.074591 0.425213
0.232740 -0.044159 0.398882
0.249096 -0.095082 0.426308
0.242088 -0.056176 0.414282
0.242088 -0.056176 0.414282
0.249664 -0.099954 0.426866
0.249664 -0.099954 0.426866
0.249529 -0.099904 0.426575
0.249477 -0.095454 0.426144
0.248875 -0.073963 0.424812
0.250532 -0.104728 0.427144
0.250532 -0.104728 0.427144
0.250394 -0.105630 0.426826
0.250029 -0.095483 0.426124
0.250334 -0.103060 0.426230
0.243146 -0.055869 0.414010
0.207392 -0.049958 0.353177
0.243656 -0.056422 0.414592
0.250462 -0.095413 0.425808
0.251360 -0.103515 0.426240
0.251469 -0.094497 0.426190
0.251538 -0.099692 0.426191
0.251909 -0.102973 0.426668
0.251909 -0.102973 0.426668
0.252246 -0.099246 0.426382
0.239357 -0.048759 0.404341
0.234347 -0.042126 0.395751
0.253238 -0.105158 0.426790
0.252713 -0.099743 0.425897
0.253172 -0.103463 0.426543
0.240344 -0.049258 0.404657
0.239911 -0.048708 0.403703
0.253103 -0.094851 0.425768
0.253103 -0.094851 0.425768
0.253949 -0.104424 0.427031
0.253224 -0.095331 0.425678
0.234554 -0.040879 0.393643
0.254362 -0.102875 0.426284
0.254621 -0.104573 0.426554
0.254743 -0.105526 0.426651
0.207715 -0.046184 0.347548
0.235787 -0.042100 0.394235
0.247784 -0.056345 0.414012
0.247784 -0.056345 0.414012
0.244322 -0.051948 0.408212
0.247698 -0.055805 0.413570
0.245744 -0.053528 0.410221
0.248370 -0.056647 0.414233
0.255816 -0.105612 0.426582
0.244314 -0.051545 0.407458
0.239401 -0.046212 0.398957
0.239401 -0.046212 0.398957
0.238930 -0.044375 0.398068
0.245066 -0.052135 0.408203
0.244532 -0.051099 0.407017
0.256095 -0.099953 0.425937
0.256181 -0.099398 0.425970
0.172411 -0.039215 0.286776
0.256487 -0.099028 0.425837
0.256812 -0.099687 0.426043
0.257390 -0.105439 0.426740
0.256831 -0.094343 0.425772
0.219100 -0.035830 0.362394
0.257766 -0.095348 0.425728
0.246013 -0.049046 0.403803
0.246440 -0.048914 0.403504
0.238442 -0.038642 0.390291
0.238878 -0.038986 0.390521
0.246689 -0.056902 0.402016
0.231664 -0.029686 0.377419
0.200659 -0.043407 0.326670
0.244766 -0.044539 0.397437
0.250891 -0.051743 0.407263
0.252341 -0.053058 0.408744
0.244325 -0.042577 0.395602
0.250987 -0.050367 0.405794
0.225279 -0.035815 0.361802
0.256713 -0.056092 0.411939
0.246901 -0.040433 0.391558
0.247627 -0.040455 0.391601
0.238369 -0.046970 0.376416
0.259098 -0.053286 0.408932
0.259098 -0.053286 0.408932
0.257835 -0.051490 0.406580
0.259086 -0.052879 0.408116
0.252690 -0.045221 0.397881
0.252308 -0.044318 0.396879
0.258548 -0.051711 0.406586
0.231446 -0.028978 0.363323
0.294082 -0.065854 0.461092
0.264866 -0.055984 0.412404
0.266036 -0.055960 0.412400
0.283372 -0.059123 0.438474
0.260259 -0.048719 0.402561
0.260259 -0.048719 0.402561
0.229684 -0.027477 0.354315
0.249014 -0.054688 0.383343
0.199294 -0.023771 0.306032
0.202531 -0.041672 0.310977
0.252713 -0.036594 0.385813
0.270157 -0.055587 0.411992
0.253431 -0.036532 0.386019
0.271497 -0.056464 0.412718
0.271285 -0.055875 0.412178
0.271553 -0.055560 0.411964
0.276021 -0.037048 0.416801
0.272748 -0.052670 0.407870
0.257139 -0.034948 0.383672
0.276644 -0.056395 0.412629
0.276644 -0.056395 0.412629
0.264716 -0.042561 0.394695
0.276862 -0.055929 0.412371
0.276862 -0.055929 0.412371
0.277819 -0.055929 0.412731
0.260523 -0.036483 0.385710
0.295104 -0.050463 0.433889
0.272847 -0.047391 0.400809
0.272847 -0.047391 0.400809
0.261391 -0.034666 0.383815
0.273028 -0.047004 0.400569
0.282477 -0.055937 0.412532
0.279028 -0.052069 0.407444
0.279020 -0.051333 0.406806
0.236075 -0.039799 0.343305
0.284461 -0.055958 0.413029
0.265813 -0.036527 0.385941
0.266197 -0.036501 0.385827
0.280976 -0.048765 0.403058
0.280051 -0.047075 0.401256
0.288947 -0.055920 0.413309
0.288947 -0.055920 0.413309
0.273142 -0.037321 0.386924
0.280188 -0.044161 0.396836
0.280188 -0.044161 0.396836
0.272885 -0.036841 0.386364
0.273991 -0.036462 0.386778
0.295679 -0.052023 0.415819
0.303666 -0.055983 0.415148
0.270349 -0.019814 0.365307
0.269983 -0.019264 0.364730
0.270786 -0.019971 0.365051
0.270786 -0.019971 0.365051
