0.612414 -0.305652 1.187953 0.488213 0.492115 0.503598
0.357374 -0.419783 1.225978 0.585299 0.605604 0.711038
0.526442 0.061791 1.072773 0.012303 0.026086 0.032363
0.500923 -0.430188 1.201890 0.853543 0.881448 0.916638
0.744449 -0.289566 1.181921 0.524654 0.241761 0.086814
0.335711 -0.425160 1.230896 0.215405 0.230943 0.460223
0.430145 -0.403373 1.211818 0.213767 0.218330 0.459828
0.395022 -0.428964 1.217504 0.685854 0.691387 0.847130
0.613047 -0.308126 1.188050 0.439739 0.437789 0.440739
0.616512 -0.111884 1.075268 0.599403 0.640283 0.671674
0.523362 -0.435234 1.200871 0.789577 0.840557 0.971437
0.494919 -0.223949 1.102779 0.070344 0.113481 0.191913
0.445682 -0.195638 1.098979 0.078466 0.097260 0.126528
-0.196707 -0.363055 1.214050 0.152200 0.183572 0.211023
0.002861 -0.268171 1.105031 0.681534 0.724671 0.777268
0.002789 -0.268316 1.105564 0.687016 0.730153 0.783427
0.341132 -0.483040 1.251543 0.337474 0.323570 0.555940
0.664602 -0.390185 1.286804 0.113940 0.125930 0.426946
-0.189540 -0.087774 1.120191 0.007392 0.019081 0.023002
0.066291 -0.196469 1.101168 0.545865 0.576771 0.654412
0.432048 -0.424091 1.211712 0.275383 0.297491 0.471789
0.401366 -0.480277 1.242199 0.299369 0.302623 0.528700
0.405859 -0.507014 1.256280 0.408729 0.420000 0.586802
0.486953 -0.382079 1.200398 0.680795 0.708262 0.876936
0.615372 -0.128982 1.077411 0.426522 0.425808 0.427906
0.502369 -0.498450 1.238418 0.387545 0.395034 0.545446
0.405859 -0.507014 1.256280 0.408729 0.420000 0.586802
0.547970 -0.476291 1.220205 0.843547 0.879249 0.949367
0.596690 -0.444374 1.228372 0.543449 0.578636 0.747157
0.754348 -0.314881 1.187837 0.846090 0.626449 0.483037
0.495664 -0.428918 1.203108 0.294841 0.281560 0.523697
0.523801 -0.390245 1.193878 0.214152 0.198805 0.455132
0.401331 -0.487145 1.245419 0.511304 0.518092 0.597501
0.596748 -0.481881 1.234324 0.358846 0.372546 0.433903
0.566680 -0.484178 1.223407 0.908771 0.913782 0.982657
0.402780 -0.499551 1.252265 0.374778 0.374518 0.592491
0.533341 -0.515132 1.248717 0.508337 0.514487 0.611075
0.321334 -0.467776 1.247345 0.360113 0.349944 0.587471
0.495078 -0.494532 1.235824 0.786928 0.834975 0.929700
0.554863 -0.416730 1.187735 0.840091 0.870498 0.907279
0.516254 -0.387639 1.196512 0.530366 0.526462 0.636217
0.251467 -0.361544 1.174723 0.772095 0.807389 0.823410
-0.008349 -0.142609 1.041657 0.459537 0.452556 0.450744
0.710491 -0.168441 1.111395 0.394392 0.459377 0.784526
0.391694 -0.435778 1.220495 0.351952 0.348053 0.543104
0.546342 -0.466066 1.215195 0.837948 0.867806 0.917291
0.391694 -0.435778 1.220495 0.351952 0.348053 0.543104
0.354307 -0.509613 1.262897 0.447166 0.447807 0.563531
-0.009729 -0.261780 1.102655 0.732178 0.785014 0.859524
0.914881 -0.134773 1.178463 0.233483 0.411765 0.550316
0.072577 -0.379756 1.116366 0.012912 0.017171 0.024474
0.561770 -0.384363 1.176121 0.318757 0.293097 0.568750
0.344314 -0.436428 1.226988 0.778863 0.809953 0.952229
0.608551 -0.423439 1.222884 0.742260 0.764951 0.841138
0.481186 -0.388250 1.201947 0.609298 0.625285 0.814960
0.481186 -0.388250 1.201947 0.609298 0.625285 0.814960
0.320765 -0.472102 1.248765 0.349682 0.353868 0.577713
0.519959 -0.403025 1.196880 0.263487 0.263212 0.476574
0.713071 -0.166513 1.112874 0.515949 0.567216 0.789261
0.493903 -0.488987 1.234203 0.865647 0.880311 0.930321
0.361166 -0.401823 1.233209 0.078413 0.105349 0.266346
0.437027 -0.391878 1.210814 0.080882 0.080733 0.391965
0.323730 -0.496321 1.260874 0.534928 0.535074 0.613915
0.070060 -0.117998 1.033478 0.033746 0.031361 0.038882
0.529622 -0.390979 1.191188 0.250021 0.238256 0.455558
0.715059 -0.167801 1.113364 0.053435 0.096267 0.440672
0.729308 -0.171170 1.135553 0.053435 0.096267 0.440672
0.553507 -0.479949 1.221339 0.514100 0.520854 0.596453
-0.223180 -0.063946 1.127095 0.146441 0.147357 0.171621
0.529622 -0.390979 1.191188 0.250021 0.238256 0.455558
0.446281 -0.006898 1.069170 0.530813 0.553756 0.582520
0.345192 -0.426894 1.228247 0.705684 0.711696 0.758208
0.389300 -0.428248 1.220140 0.608301 0.625288 0.795841
0.529622 -0.390979 1.191188 0.250021 0.238256 0.455558
0.321813 -0.484519 1.256352 0.874329 0.888804 0.999040
0.389774 -0.406284 1.222593 0.258961 0.277299 0.488185
0.504100 -0.476767 1.225901 0.858676 0.889369 0.940418
0.438480 -0.396514 1.210381 0.509596 0.559682 0.755529
0.504100 -0.476767 1.225901 0.858676 0.889369 0.940418
-0.025776 -0.148605 1.045147 0.442197 0.442197 0.442197
0.480317 -0.382054 1.202582 0.585285 0.610573 0.842745
0.767386 -0.325230 1.191418 0.464889 0.256456 0.137720
0.389097 -0.410995 1.221707 0.111366 0.127052 0.371924
0.542402 -0.475281 1.220991 0.284709 0.278284 0.543585
0.502327 -0.467338 1.221592 0.835066 0.855398 0.912546
0.542402 -0.475281 1.220991 0.284709 0.278284 0.543585
0.479746 -0.392998 1.201468 0.088379 0.093272 0.331080
0.518071 -0.425949 1.198775 0.249182 0.262509 0.506614
0.657907 -0.291458 1.179379 0.900304 0.823734 0.763993
0.510742 -0.508685 1.242488 0.825582 0.863353 0.962515
0.388724 -0.416585 1.221379 0.297483 0.311822 0.469912
0.388724 -0.416585 1.221379 0.297483 0.311822 0.469912
0.719193 -0.167198 1.114621 0.472398 0.528210 0.787796
0.347484 -0.450685 1.234126 0.862380 0.867978 0.951170
0.632257 -0.438778 1.219412 0.151822 0.172878 0.399759
0.545357 -0.423159 1.192269 0.773149 0.780886 0.854115
0.523655 -0.503369 1.238304 0.816290 0.823062 0.916675
0.517669 -0.417364 1.197902 0.166126 0.188923 0.424926
0.498185 -0.513059 1.248668 0.369233 0.393563 0.578919
0.527819 -0.418119 1.195393 0.775320 0.795272 0.842615
0.575191 -0.492398 1.227456 0.518834 0.533763 0.595983
0.076458 -0.108159 1.026932 0.039611 0.042735 0.058422
0.791528 -0.166301 1.132434 0.417499 0.470799 0.528244
-0.039222 -0.182159 1.056055 0.433913 0.470569 0.515171
0.077693 -0.112838 1.029923 0.037190 0.056798 0.068562
0.768311 -0.294135 1.186713 0.560349 0.322641 0.166757
0.081806 -0.238638 1.078288 0.615006 0.654221 0.693437
0.452186 -0.493350 1.240620 0.314306 0.314379 0.543581
0.354574 -0.505244 1.258775 0.894643 0.911418 0.943441
0.602950 -0.474117 1.232063 0.262288 0.268410 0.462506
-0.229288 -0.349926 1.221385 0.640042 0.673185 0.731638
0.445601 -0.455238 1.222278 0.829932 0.836309 0.975989
0.770813 -0.307542 1.188844 0.895199 0.715284 0.629025
0.770813 -0.307542 1.188844 0.895199 0.715284 0.629025
0.543544 -0.420011 1.192156 0.828163 0.853852 0.927331
0.615011 -0.303809 1.185436 0.080723 0.074476 0.074476
0.626518 -0.474969 1.233414 0.808517 0.816968 0.955735
0.770759 -0.294374 1.187463 0.522643 0.294058 0.152061
0.575683 -0.380029 1.176529 0.303788 0.319665 0.495893
0.611653 -0.460998 1.226460 0.245555 0.241623 0.496508
0.360210 -0.436015 1.224940 0.381192 0.387078 0.591836
0.353692 -0.408682 1.229723 0.617419 0.635420 0.775549
0.394554 -0.479451 1.244400 0.389657 0.383390 0.576943
0.571855 -0.420237 1.188861 0.707934 0.719445 0.891737
0.451078 -0.479062 1.233650 0.766674 0.796422 0.925306
0.937802 -0.112199 1.190800 0.008935 0.039356 0.066667
0.442816 -0.427031 1.210392 0.713755 0.729275 0.913477
0.450113 -0.471426 1.230296 0.366356 0.358422 0.544494
0.562871 -0.198752 1.084154 0.006848 0.007387 0.026689
0.777491 -0.326674 1.193833 0.489196 0.316454 0.224361
0.634233 -0.450170 1.221402 0.713026 0.697051 0.905140
0.618726 -0.433219 1.218523 0.805295 0.820415 0.931458
0.774976 -0.303922 1.189378 0.893267 0.697633 0.593509
0.451592 -0.477217 1.232726 0.791968 0.809501 0.922897
0.616242 -0.299848 1.186668 0.127284 0.108028 0.115646
0.616242 -0.299848 1.186668 0.127284 0.108028 0.115646
0.599430 -0.432659 1.225376 0.079838 0.107793 0.293435
0.161824 -0.362347 1.185852 0.016777 0.010393 0.024207
0.443655 -0.408127 1.209724 0.788821 0.804929 0.868120
0.161824 -0.362347 1.185852 0.016777 0.010393 0.024207
0.447431 -0.450017 1.219910 0.343707 0.338854 0.592965
0.443231 -0.393279 1.208396 0.173676 0.181797 0.406610
0.444317 -0.389043 1.209373 0.726976 0.737971 0.862017
0.787545 -0.163422 1.131838 0.414971 0.487540 0.537342
0.496012 -0.168415 1.101530 0.833648 0.825947 0.837515
0.787545 -0.163422 1.131838 0.414971 0.487540 0.537342
0.328697 -0.458954 1.241901 0.515994 0.517423 0.578739
-0.217748 -0.067632 1.123553 0.475433 0.497526 0.507515
0.822645 -0.159339 1.142573 0.032171 0.057658 0.092986
0.492131 -0.400603 1.199735 0.163970 0.185000 0.387458
0.570672 -0.462995 1.209559 0.410941 0.420256 0.576660
0.457081 -0.493781 1.240570 0.323977 0.314983 0.529076
0.506967 -0.388560 1.200346 0.677981 0.694023 0.880403
0.385170 -0.413228 1.222633 0.741863 0.770867 0.876623
0.446720 -0.389071 1.209029 0.571660 0.609013 0.785552
0.635153 -0.444256 1.221206 0.795030 0.818120 0.874547
0.449708 -0.445545 1.216102 0.373513 0.381523 0.490644
0.482486 -0.307894 1.187794 0.124872 0.189487 0.278083
0.356985 -0.511068 1.261753 0.429980 0.438200 0.573741
-0.194433 -0.109703 1.123060 0.022541 0.038253 0.054016
0.492693 -0.392784 1.201697 0.586075 0.608303 0.774205
0.354688 -0.450077 1.234369 0.382332 0.362724 0.660481
0.457856 -0.482577 1.236106 0.803193 0.812311 0.969052
0.787265 -0.292129 1.191252 0.718773 0.378005 0.125551
0.787265 -0.292129 1.191252 0.718773 0.378005 0.125551
0.503609 -0.383152 1.200782 0.707994 0.708837 0.828722
0.871171 -0.159197 1.161799 0.000719 0.021980 0.067270
0.090426 -0.101464 1.022428 0.039398 0.050061 0.069669
-0.082598 -0.425924 1.325581 0.681061 0.694566 0.714174
0.393902 -0.508373 1.257064 0.881071 0.891216 0.946118
0.573304 -0.370511 1.173149 0.298649 0.329289 0.433757
0.524997 -0.397991 1.194981 0.397719 0.411292 0.561024
0.385984 -0.457863 1.233012 0.536628 0.536361 0.588380
0.385984 -0.457863 1.233012 0.536628 0.536361 0.588380
0.602080 -0.482184 1.232241 0.722720 0.734590 0.857125
0.531463 -0.430947 1.197717 0.397665 0.395560 0.564874
0.391516 -0.495015 1.251387 0.342117 0.346915 0.447038
-0.193545 -0.300302 1.577715 0.496011 0.558757 0.625423
-0.244277 -0.506874 1.354029 0.881891 0.852752 0.831676
0.531463 -0.430947 1.197717 0.397665 0.395560 0.564874
0.573397 -0.373061 1.173539 0.347432 0.363878 0.558763
0.573397 -0.373061 1.173539 0.347432 0.363878 0.558763
0.330997 -0.438650 1.231786 0.351556 0.338630 0.538681
0.456205 -0.464929 1.226667 0.842080 0.858755 0.961027
0.114947 -0.434532 1.255407 0.027886 0.086802 0.221064
0.347978 -0.436755 1.227626 0.787853 0.783244 0.927133
0.330997 -0.438650 1.231786 0.351556 0.338630 0.538681
0.570199 -0.403882 1.182943 0.800115 0.823564 0.970511
0.600081 -0.431411 1.228346 0.081799 0.092894 0.320553
0.381182 -0.413052 1.223390 0.753055 0.760898 0.840566
0.600081 -0.431411 1.228346 0.081799 0.092894 0.320553
0.604272 -0.495211 1.237144 0.797060 0.830665 0.893009
0.451571 -0.008622 1.071002 0.034299 0.049129 0.068734
0.385782 -0.469647 1.240634 0.380132 0.380819 0.620705
0.297965 -0.451142 1.242253 0.437337 0.437337 0.600682
0.451680 -0.008494 1.071319 0.034821 0.047938 0.073499
0.314054 -0.417305 1.239250 0.757351 0.763175 0.851810
0.297965 -0.451142 1.242253 0.437337 0.437337 0.600682
0.386007 -0.474284 1.242110 0.478410 0.471304 0.566644
0.386007 -0.474284 1.242110 0.478410 0.471304 0.566644
0.544687 -0.377679 1.175035 0.764321 0.789658 0.949893
0.567171 -0.404904 1.183897 0.743407 0.768299 0.918463
0.623991 -0.474366 1.231282 0.361023 0.354350 0.542566
0.201465 -0.430922 1.251226 0.521116 0.663629 0.794893
0.298042 -0.437518 1.238865 0.197474 0.183381 0.468827
0.567094 -0.480135 1.220390 0.294703 0.308294 0.567140
0.298619 -0.429683 1.239611 0.765605 0.739978 0.879209
0.105377 -0.266808 1.080715 0.817244 0.811825 0.812859
0.105194 -0.236104 1.076480 0.806974 0.830680 0.844400
0.453346 -0.426090 1.207273 0.766684 0.788001 0.872398
0.124033 -0.437618 1.260696 0.144472 0.256609 0.378461
0.349178 -0.440821 1.228746 0.350744 0.329611 0.555269
0.108145 -0.342166 1.095127 0.281235 0.282091 0.282091
0.354928 -0.478894 1.248702 0.310450 0.325501 0.543449
0.362832 -0.434489 1.223967 0.829996 0.835217 0.874432
0.565749 -0.393110 1.179988 0.272213 0.248777 0.454416
0.502171 -0.481132 1.228315 0.774673 0.800273 0.937289
0.454273 -0.421424 1.206448 0.837543 0.840551 0.894742
0.350346 -0.403584 1.232450 0.085735 0.109956 0.332437
0.376813 -0.429984 1.221995 0.250008 0.246238 0.381050
0.574111 -0.382572 1.176169 0.292079 0.304327 0.545948
0.639679 -0.449106 1.224458 0.790525 0.805562 0.861852
0.640912 -0.297371 1.182501 0.516807 0.743586 0.732593
0.567094 -0.480135 1.220390 0.294703 0.308294 0.567140
0.455891 -0.434142 1.209951 0.903871 0.925807 0.961632
0.303314 -0.474961 1.254387 0.333760 0.338004 0.589361
0.914647 -0.411870 1.360610 0.535646 0.562217 0.589228
0.455202 -0.383379 1.206616 0.272109 0.288589 0.435447
0.126399 -0.437948 1.263894 0.053514 0.140493 0.285601
0.357190 -0.470900 1.243989 0.338400 0.345440 0.546819
0.488442 -0.492019 1.235600 0.409604 0.410834 0.633333
0.505886 -0.425968 1.199173 0.362840 0.361673 0.517833
0.476072 -0.422025 1.204365 0.301295 0.323337 0.487740
0.476072 -0.422025 1.204365 0.301295 0.323337 0.487740
-0.159037 -0.434883 1.373290 0.039421 0.076267 0.105636
0.418118 0.062126 1.059292 0.825761 0.831198 0.846884
0.303187 -0.473074 1.251293 0.366010 0.330855 0.592981
0.299974 -0.438367 1.237358 0.794778 0.812417 0.914822
0.319749 -0.499726 1.264126 0.444288 0.428602 0.559809
0.318814 -0.494799 1.260694 0.355569 0.350197 0.588278
0.448213 -0.007265 1.067795 0.489425 0.540885 0.581919
0.534111 -0.382920 1.183410 0.846994 0.846667 0.959132
0.112219 -0.340284 1.094435 0.496826 0.492905 0.500748
0.465129 -0.468506 1.226789 0.773037 0.781790 0.888934
0.375626 -0.414266 1.225202 0.160906 0.133862 0.407230
0.374034 -0.424193 1.221539 0.162284 0.169862 0.409802
0.507196 -0.134834 1.094340 0.021125 0.047697 0.111058
0.465640 -0.464811 1.225167 0.831379 0.850687 0.954185
0.507196 -0.134834 1.094340 0.021125 0.047697 0.111058
0.620012 -0.302420 1.184703 0.567675 0.549311 0.545233
0.488566 -0.388271 1.201959 0.587258 0.627626 0.802998
-0.116234 -0.431947 1.377489 0.670175 0.723946 0.750506
0.473280 -0.419686 1.201362 0.334803 0.343133 0.516292
0.635171 -0.304679 1.180481 0.151982 0.140217 0.148061
0.635171 -0.304679 1.180481 0.151982 0.140217 0.148061
0.563341 -0.418412 1.189958 0.396166 0.407472 0.565651
0.458506 -0.393136 1.203520 0.159155 0.156496 0.333231
0.458506 -0.393136 1.203520 0.159155 0.156496 0.333231
0.563341 -0.418412 1.189958 0.396166 0.407472 0.565651
0.639593 -0.447051 1.220988 0.787446 0.800817 0.862049
0.377085 -0.459220 1.235326 0.878106 0.893423 0.962539
0.363731 -0.424095 1.224659 0.224178 0.247276 0.368775
0.302721 -0.445878 1.239497 0.292329 0.263368 0.510408
0.634551 -0.306490 1.182283 0.418128 0.398520 0.402441
0.447620 -0.194549 1.101346 0.554659 0.583219 0.620718
0.621237 -0.301523 1.185408 0.108082 0.088474 0.092396
0.454714 -0.010438 1.071283 0.089562 0.087429 0.103637
0.488417 -0.505670 1.242347 0.315963 0.336088 0.549274
0.459257 -0.406317 1.203594 0.820893 0.824832 0.928975
0.488417 -0.505670 1.242347 0.315963 0.336088 0.549274
0.633541 -0.305584 1.183260 0.048089 0.033815 0.038085
0.379838 -0.484527 1.246233 0.380202 0.373070 0.520662
0.527233 -0.431460 1.199117 0.269616 0.268780 0.504897
0.633197 -0.303143 1.183663 0.135818 0.109918 0.109830
0.418138 -0.223362 1.095100 0.787728 0.787508 0.851378
0.503420 -0.414863 1.197237 0.252882 0.261955 0.375692
0.303795 -0.439734 1.237694 0.333130 0.312831 0.555621
0.539265 -0.471261 1.218065 0.300508 0.305928 0.504085
0.316324 -0.492096 1.260938 0.883580 0.881578 0.926842
0.316324 -0.492096 1.260938 0.883580 0.881578 0.926842
0.472805 -0.411140 1.204337 0.369253 0.401977 0.464258
0.468576 -0.462234 1.223969 0.850389 0.877274 0.920981
0.329118 -0.412840 1.232627 0.089831 0.080564 0.355747
0.573591 -0.466404 1.212237 0.761661 0.802371 0.939816
0.632064 -0.304397 1.184448 0.547474 0.538198 0.539851
0.304507 -0.438023 1.236518 0.726738 0.724607 0.901464
0.305560 -0.408843 1.239926 0.748587 0.754884 0.831831
0.471405 -0.397004 1.201983 0.783546 0.801621 0.886697
0.721839 -0.005937 1.063703 0.926000 0.917339 0.921064
0.311962 -0.457420 1.244845 0.458005 0.466576 0.621427
0.311962 -0.457420 1.244845 0.458005 0.466576 0.621427
0.462905 -0.414095 1.204892 0.707982 0.713802 0.821018
-0.148570 -0.428171 1.360698 0.738013 0.773000 0.807556
-0.148478 -0.428007 1.360294 0.737586 0.773337 0.808956
0.547181 -0.381630 1.176870 0.451531 0.444118 0.556682
0.536742 0.088325 1.068002 0.365315 0.400933 0.436546
0.536742 0.088325 1.068002 0.365315 0.400933 0.436546
0.616773 -0.436930 1.221339 0.614146 0.644538 0.833709
0.381275 -0.513690 1.262261 0.846828 0.853420 0.953449
-0.294775 -0.521839 1.375552 0.766769 0.806782 0.834233
-0.103395 -0.120681 1.098973 0.019066 0.005941 0.047160
0.369178 -0.435362 1.222792 0.705085 0.713439 0.873687
0.369178 -0.435362 1.222792 0.705085 0.713439 0.873687
0.373147 -0.459755 1.236277 0.448657 0.448657 0.514328
0.373147 -0.459755 1.236277 0.448657 0.448657 0.514328
0.829802 -0.157438 1.145282 0.038666 0.048008 0.068263
-0.221557 -0.093611 1.127638 0.364590 0.529970 0.665528
0.305754 -0.422716 1.238712 0.164654 0.162805 0.380158
0.127181 -0.356758 1.096193 0.096488 0.099247 0.111212
0.478591 -0.503640 1.242481 0.795277 0.797529 0.897623
0.364973 -0.424773 1.224480 0.579155 0.611724 0.761774
0.566643 -0.396983 1.180326 0.766315 0.776728 0.964861
0.722468 -0.003544 1.062810 0.507210 0.553187 0.604024
0.568766 -0.395734 1.180712 0.794439 0.829881 0.899911
0.629509 -0.304212 1.183821 0.531166 0.519692 0.527245
0.305837 -0.428261 1.237548 0.635372 0.639397 0.811192
0.539978 -0.487974 1.227463 0.275053 0.248394 0.513761
0.686204 -0.427222 1.304629 0.000215 0.000215 0.196414
0.574165 -0.386067 1.178987 0.832849 0.848535 0.914008
0.371382 -0.454825 1.233690 0.491342 0.491661 0.552782
0.628299 -0.304493 1.183931 0.563893 0.552128 0.560091
0.489543 -0.393058 1.201205 0.603334 0.626027 0.790445
0.628495 -0.301318 1.184385 0.153075 0.148148 0.161293
0.311462 -0.485127 1.257690 0.318043 0.289650 0.539826
0.628495 -0.301318 1.184385 0.153075 0.148148 0.161293
0.628551 -0.303599 1.184690 0.167379 0.151925 0.165726
0.329269 -0.410877 1.233952 0.517444 0.531473 0.746388
0.576206 -0.398503 1.183494 0.489743 0.498159 0.544636
0.515882 -0.411243 1.198328 0.743278 0.770629 0.895148
0.576206 -0.398503 1.183494 0.489743 0.498159 0.544636
0.305943 -0.437615 1.233842 0.378426 0.356030 0.514002
0.331137 -0.455818 1.241063 0.826944 0.820930 0.936781
0.129880 -0.268428 1.088690 0.628181 0.640493 0.654197
0.314557 -0.491993 1.260253 0.891409 0.887483 0.972490
0.307608 -0.451599 1.239809 0.397601 0.353813 0.601399
0.567059 -0.500407 1.232788 0.820395 0.829880 0.949622
0.307368 -0.428828 1.238410 0.204147 0.204997 0.384776
0.590427 -0.467605 1.229512 0.490135 0.494056 0.733272
0.615833 -0.426109 1.220813 0.176229 0.203082 0.451474
0.314557 -0.491993 1.260253 0.891409 0.887483 0.972490
0.469418 -0.441787 1.212288 0.842836 0.854600 0.930909
0.308197 -0.438067 1.235135 0.807206 0.797298 0.917885
0.468830 -0.395716 1.201461 0.370550 0.373543 0.606992
0.475306 -0.468623 1.226776 0.386759 0.399140 0.627055
0.468777 -0.392772 1.201568 0.160634 0.182335 0.453253
0.489136 -0.391736 1.201424 0.504916 0.521018 0.713425
0.615833 -0.426109 1.220813 0.176229 0.203082 0.451474
0.627303 -0.304657 1.184968 0.514650 0.498963 0.518571
0.625480 -0.303361 1.183266 0.063387 0.046804 0.052010
0.474218 -0.463753 1.221913 0.824422 0.844273 0.888470
-0.128802 -0.311473 1.265440 0.169944 0.208893 0.254848
0.625424 -0.305343 1.183334 0.035806 0.020120 0.039281
0.547181 -0.381630 1.176870 0.451531 0.444118 0.556682
0.467511 -0.415165 1.204411 0.188928 0.153931 0.444040
0.371736 -0.469178 1.239879 0.796061 0.807185 0.920509
0.336439 -0.513601 1.266749 0.837914 0.835582 0.937622
0.371184 -0.466086 1.238176 0.377606 0.379459 0.503522
0.371184 -0.466086 1.238176 0.377606 0.379459 0.503522
0.572485 -0.166798 1.084660 0.084798 0.092641 0.096563
0.370585 -0.464356 1.237126 0.425397 0.431939 0.501457
0.483901 -0.508086 1.243226 0.849913 0.890988 0.925625
0.729289 -0.009219 1.065573 0.778114 0.795167 0.824915
0.366780 -0.421595 1.224463 0.651883 0.675511 0.794280
0.366780 -0.421595 1.224463 0.651883 0.675511 0.794280
0.326793 -0.468763 1.248183 0.413253 0.419744 0.592928
0.374822 -0.491260 1.251769 0.554549 0.557164 0.602837
0.326793 -0.468763 1.248183 0.413253 0.419744 0.592928
0.503989 -0.509464 1.244607 0.363869 0.381993 0.587160
0.408892 -0.421509 1.215293 0.739648 0.740165 0.839353
0.606935 -0.462504 1.228494 0.807417 0.827025 0.911095
0.409669 -0.435091 1.216848 0.865514 0.875058 0.906844
0.599035 -0.308055 1.188251 0.432159 0.441917 0.452385
0.385938 -0.288905 1.152966 0.342378 0.375407 0.452802
0.044378 -0.359773 1.257960 0.397177 0.408942 0.425739
0.467620 -0.419592 1.204502 0.720557 0.735374 0.755418
0.559222 -0.435850 1.196755 0.342502 0.322980 0.575561
0.488788 -0.410498 1.200728 0.817090 0.843386 0.924174
0.615975 -0.443412 1.223167 0.792487 0.825516 0.889825
0.422908 -0.491336 1.245176 0.485502 0.501116 0.621424
0.522212 -0.426126 1.196068 0.678515 0.700347 0.899011
0.039057 -0.359443 1.259158 0.420480 0.442068 0.461843
0.601444 -0.491673 1.235692 0.398226 0.409892 0.530814
-0.207136 -0.103177 1.126047 0.405393 0.560199 0.679570
-0.176568 -0.101420 1.164127 0.362176 0.365155 0.380841
0.572205 -0.385229 1.179027 0.799820 0.814893 0.903072
0.601444 -0.491673 1.235692 0.398226 0.409892 0.530814
0.338266 -0.434150 1.230025 0.272754 0.271540 0.507842
0.283624 -0.090776 1.064973 0.169253 0.208086 0.594962
0.338266 -0.434150 1.230025 0.272754 0.271540 0.507842
0.625356 -0.455153 1.223676 0.802434 0.805437 0.870449
0.286023 -0.192820 0.589398 0.799820 0.814893 0.903072
0.609352 -0.473613 1.230675 0.776132 0.803149 0.884268
0.505209 -0.395393 1.199760 0.672862 0.684779 0.791892
0.608343 -0.307448 1.186287 0.481116 0.466353 0.469813
0.347153 -0.507893 1.262675 0.901667 0.924803 0.952095
0.561974 -0.391187 1.178149 0.414397 0.440614 0.581237
0.621948 -0.435273 1.218031 0.273345 0.281152 0.443476
0.422395 -0.462889 1.230458 0.900315 0.908158 0.938441
0.418620 -0.441868 1.219115 0.701784 0.708288 0.936554
0.505037 -0.395078 1.199181 0.606102 0.619192 0.748402
-0.134700 -0.447348 1.358799 0.491834 0.451824 0.422836
0.427775 0.054286 1.061197 0.993027 0.995966 0.995966
0.454250 -0.194066 1.097263 0.571287 0.624987 0.668099
0.427775 0.054286 1.061197 0.993027 0.995966 0.995966
0.418174 -0.406425 1.214038 0.489652 0.501910 0.566811
0.418893 -0.398065 1.215044 0.436331 0.472148 0.736467
0.402836 -0.420580 1.216342 0.735283 0.762256 0.841804
0.559222 -0.435850 1.196755 0.342502 0.322980 0.575561
0.306127 -0.436454 1.235342 0.634293 0.631771 0.863486
0.339811 -0.457667 1.239851 0.513847 0.505677 0.584188
0.532631 0.039838 1.075739 0.064852 0.080538 0.176619
0.533152 -0.419541 1.194615 0.377291 0.398533 0.503648
0.447903 -0.014412 1.077428 0.734808 0.724801 0.726965
0.479524 -0.469805 1.226680 0.379951 0.380873 0.594189
0.359903 -0.481004 1.248068 0.293670 0.283870 0.544445
0.516828 -0.441655 1.205987 0.338197 0.350568 0.613568
0.356904 -0.483115 1.249919 0.293485 0.268649 0.546020
0.359903 -0.481004 1.248068 0.293670 0.283870 0.544445
0.375574 -0.483445 1.247302 0.929922 0.938404 0.972317
0.606222 -0.305861 1.188289 0.439024 0.420423 0.427337
0.170047 -0.316560 1.167029 0.055143 0.068133 0.086393
0.571007 -0.375628 1.173694 0.358044 0.361305 0.563839
0.580811 -0.479594 1.221203 0.744754 0.760440 0.883595
0.306336 -0.412832 1.239288 0.665770 0.693005 0.849089
0.022603 -0.281640 1.147225 0.575883 0.620288 0.653710
0.497199 -0.393005 1.201972 0.085817 0.119443 0.382779
0.497199 -0.393005 1.201972 0.085817 0.119443 0.382779
0.401248 -0.437792 1.220006 0.858435 0.845265 0.953433
0.358334 -0.487583 1.251671 0.297545 0.271839 0.489005
0.552224 -0.459108 1.211068 0.494545 0.506310 0.561212
0.338061 -0.402881 1.236204 0.104309 0.103835 0.348997
-0.134070 -0.350787 1.249855 0.104735 0.053821 0.496345
0.369236 -0.466235 1.238562 0.874434 0.878018 0.952035
0.369236 -0.466235 1.238562 0.874434 0.878018 0.952035
0.629988 -0.305720 1.184350 0.052671 0.042466 0.048749
0.398298 -0.405798 1.216707 0.221983 0.237259 0.532876
0.567172 -0.396816 1.180763 0.773608 0.794149 0.936575
0.404755 -0.471960 1.237013 0.725848 0.746765 0.964517
0.404755 -0.471960 1.237013 0.725848 0.746765 0.964517
0.458884 -0.003935 1.071329 0.048844 0.062053 0.091981
0.343283 -0.415833 1.231331 0.236684 0.252885 0.434549
0.567172 -0.396816 1.180763 0.773608 0.794149 0.936575
0.343283 -0.415833 1.231331 0.236684 0.252885 0.434549
0.534902 -0.463073 1.214981 0.861261 0.886689 0.949482
0.509884 -0.474403 1.224410 0.859967 0.887287 0.922914
0.313995 -0.480827 1.254079 0.352902 0.331891 0.542289
0.356552 -0.433106 1.225382 0.809782 0.826505 0.866758
0.366060 -0.404345 1.229459 0.268157 0.280126 0.389930
0.611678 -0.306852 1.187750 0.056742 0.050196 0.050196
0.356552 -0.433106 1.225382 0.809782 0.826505 0.866758
0.403689 -0.474410 1.237970 0.794827 0.809215 0.967592
0.534304 -0.392581 1.191602 0.797649 0.789806 0.900503
0.556077 -0.448397 1.203874 0.517531 0.535879 0.621848
0.553952 -0.466915 1.215301 0.793823 0.808236 0.903970
0.602747 -0.444863 1.227160 0.573907 0.589668 0.779853
0.560076 -0.482115 1.222804 0.348948 0.351172 0.513829
0.477665 -0.506935 1.244212 0.862272 0.897892 0.945633
0.319371 -0.419493 1.233928 0.231271 0.246980 0.353024
0.462121 -0.405526 1.203788 0.450080 0.449583 0.564431
0.430369 -0.403510 1.211104 0.269970 0.280493 0.545881
0.396103 -0.441395 1.222818 0.320545 0.296781 0.523443
0.596871 -0.446500 1.229000 0.132643 0.153127 0.367055
0.512196 -0.418622 1.198927 0.676921 0.709939 0.838370
0.512196 -0.418622 1.198927 0.676921 0.709939 0.838370
0.430595 -0.418411 1.210951 0.780374 0.802649 0.810553
0.753433 -0.326305 1.190069 0.505780 0.241511 0.081296
0.753328 -0.326229 1.189899 0.505780 0.241511 0.081296
0.542328 -0.471063 1.218515 0.301994 0.317958 0.540945
0.782183 -0.608621 1.812838 0.740887 0.754010 0.858829
0.482150 -0.390208 1.201270 0.564293 0.575555 0.764427
0.478068 -0.456721 1.218489 0.529753 0.533377 0.596022
0.478068 -0.456721 1.218489 0.529753 0.533377 0.596022
0.487870 -0.426387 1.202428 0.729799 0.725732 0.914212
0.399961 -0.472400 1.238202 0.851808 0.855917 0.940803
0.482938 -0.427110 1.203803 0.751806 0.783178 0.891264
0.496505 -0.498878 1.237883 0.837279 0.878484 0.972632
0.496505 -0.498878 1.237883 0.837279 0.878484 0.972632
0.752382 -0.295465 1.183683 0.836078 0.690667 0.653066
0.752382 -0.295465 1.183683 0.836078 0.690667 0.653066
0.063972 -0.123275 1.038433 0.033094 0.052702 0.060212
0.063972 -0.123275 1.038433 0.033094 0.052702 0.060212
0.572048 -0.450998 1.204173 0.393617 0.401460 0.558448
0.393039 -0.426639 1.219527 0.737464 0.731740 0.824029
0.434003 -0.430486 1.212099 0.745968 0.763748 0.918945
0.523681 -0.388204 1.193423 0.780631 0.782311 0.960419
0.523681 -0.388204 1.193423 0.780631 0.782311 0.960419
0.519571 -0.463839 1.216880 0.821495 0.845327 0.883422
0.759166 -0.311137 1.187945 0.769698 0.572994 0.476334
0.759166 -0.311137 1.187945 0.769698 0.572994 0.476334
0.577052 -0.376420 1.176759 0.778228 0.793864 0.867590
0.500967 -0.409909 1.199589 0.760148 0.775856 0.802317
0.761552 -0.326101 1.190260 0.564711 0.294029 0.132975
0.536625 -0.451159 1.206859 0.833873 0.861270 0.961362
0.391011 -0.403698 1.221565 0.759559 0.781347 0.864590
0.474644 -0.435458 1.208647 0.490856 0.489249 0.600761
0.474644 -0.435458 1.208647 0.490856 0.489249 0.600761
0.344766 -0.434888 1.227678 0.273835 0.299686 0.524180
0.487265 -0.502207 1.240764 0.443625 0.455387 0.530124
0.383834 -0.512419 1.261493 0.785448 0.796682 0.921106
0.487265 -0.502207 1.240764 0.443625 0.455387 0.530124
0.437522 -0.427820 1.210875 0.738429 0.767446 0.841296
0.504711 -0.421264 1.200023 0.338318 0.356884 0.477738
0.481141 -0.428236 1.203560 0.402025 0.412815 0.587232
0.273113 -0.102609 1.066309 0.075064 0.155501 0.641030
0.307414 -0.474168 1.252985 0.895191 0.905486 0.980362
0.524279 -0.448179 1.208922 0.384910 0.377921 0.582693
0.632840 -0.307040 1.183041 0.462315 0.442707 0.445027
0.524279 -0.448179 1.208922 0.384910 0.377921 0.582693
0.445022 -0.463047 1.227259 0.836619 0.867991 0.945565
0.633556 -0.301247 1.183597 0.105870 0.084200 0.092043
0.926609 -0.359358 1.323027 0.550606 0.597124 0.656488
0.439895 -0.399816 1.210067 0.180517 0.177234 0.419031
0.118307 -0.306406 1.093220 0.559535 0.598394 0.652154
0.118307 -0.306406 1.093220 0.559535 0.598394 0.652154
0.439895 -0.399816 1.210067 0.180517 0.177234 0.419031
0.501371 -0.407858 1.199415 0.665346 0.682402 0.808041
0.510106 -0.505927 1.241275 0.339461 0.326377 0.562811
0.548225 -0.444869 1.203632 0.468422 0.483038 0.588195
0.493095 -0.384649 1.200238 0.727718 0.724972 0.892272
0.492914 -0.417993 1.199887 0.574068 0.595006 0.819219
-0.043747 -0.338854 1.235512 0.379400 0.387243 0.391165
0.355912 -0.480908 1.249425 0.804152 0.815906 0.935837
0.369946 -0.481036 1.245676 0.405910 0.414397 0.583618
0.571981 -0.383256 1.176885 0.377040 0.375190 0.604305
0.332030 -0.424761 1.228703 0.658416 0.688161 0.806108
0.601069 -0.444205 1.228326 0.541429 0.567355 0.757870
0.455332 -0.507463 1.248872 0.859240 0.872237 0.946618
0.387400 -0.428436 1.220070 0.145660 0.159778 0.385033
0.389123 -0.397608 1.225507 0.667522 0.673539 0.736895
0.369946 -0.481036 1.245676 0.405910 0.414397 0.583618
0.531004 -0.427105 1.195874 0.283758 0.288395 0.522327
0.532764 -0.474534 1.220727 0.809245 0.814102 0.965094
0.610703 -0.443645 1.224194 0.672881 0.696198 0.879485
0.488361 -0.473890 1.225924 0.775366 0.777091 0.922795
0.086991 -0.233262 1.083649 0.000150 0.010065 0.049627
0.386709 -0.431081 1.220588 0.247654 0.267102 0.405550
0.247427 -0.644314 1.509834 0.402568 0.425884 0.453137
0.386709 -0.431081 1.220588 0.247654 0.267102 0.405550
0.268575 -0.101932 1.066653 0.128908 0.180862 0.663932
0.268575 -0.101932 1.066653 0.128908 0.180862 0.663932
0.538489 -0.388389 1.184518 0.843847 0.869695 0.906761
0.517845 -0.415420 1.198414 0.687731 0.710349 0.823353
0.444722 -0.437925 1.213106 0.850070 0.865757 0.983820
0.391696 -0.467395 1.237688 0.463625 0.481525 0.581853
0.776791 -0.307974 1.190554 0.828151 0.613411 0.485520
0.391696 -0.467395 1.237688 0.463625 0.481525 0.581853
0.914461 -0.130767 1.181713 0.015158 0.046531 0.073982
0.479617 -0.430007 1.204854 0.749716 0.769644 0.957263
0.360417 -0.429563 1.224112 0.239484 0.253477 0.424646
0.641054 -0.453745 1.224748 0.855769 0.874126 0.926469
0.485072 -0.456859 1.218739 0.838987 0.850290 0.966704
-0.197703 -0.101950 1.123268 0.030459 0.041091 0.094806
0.612529 -0.467393 1.227454 0.767346 0.789850 0.919565
0.914461 -0.130767 1.181713 0.015158 0.046531 0.073982
0.359283 -0.506290 1.261949 0.459559 0.465528 0.581452
0.314520 -0.425390 1.234814 0.273339 0.300738 0.433541
0.340268 -0.506866 1.263063 0.903702 0.911545 0.945779
0.314520 -0.425390 1.234814 0.273339 0.300738 0.433541
0.649857 -0.317118 1.181989 0.087619 0.108019 0.127627
0.386374 -0.404415 1.223989 0.224668 0.241316 0.423165
0.649857 -0.317118 1.181989 0.087619 0.108019 0.127627
0.490311 -0.420739 1.201070 0.783409 0.797443 0.891848
0.444774 -0.419000 1.207633 0.857418 0.855774 0.906484
-0.059684 -0.119790 1.061256 0.489702 0.486154 0.494184
0.786446 -0.167061 1.130590 0.417841 0.476523 0.512236
0.453112 -0.471407 1.230115 0.294386 0.282483 0.535542
0.360459 -0.490992 1.253605 0.810118 0.834035 0.929004
0.525077 -0.401517 1.195405 0.773237 0.791586 0.831238
0.506492 -0.382831 1.199292 0.816730 0.832899 0.896548
0.452713 -0.464967 1.226696 0.844742 0.862101 0.955964
0.572217 -0.435512 1.196078 0.731606 0.752760 0.841893
0.477507 -0.391687 1.201157 0.238474 0.258037 0.430575
0.301569 -0.086534 1.067788 0.464519 0.442768 0.621191
0.565788 -0.383654 1.176519 0.800473 0.810339 0.949761
0.952802 -0.111404 1.197974 0.000000 0.010452 0.049195
0.360459 -0.490992 1.253605 0.810118 0.834035 0.929004
0.530699 -0.487413 1.228176 0.378764 0.391814 0.568708
0.311997 -0.425446 1.234713 0.787026 0.802942 0.865809
0.470243 -0.326209 1.183901 0.769215 0.793564 0.850147
0.611518 -0.437066 1.224253 0.780004 0.811377 0.864675
0.611518 -0.437066 1.224253 0.780004 0.811377 0.864675
0.514041 -0.385280 1.196789 0.425684 0.427506 0.557568
0.478386 -0.430725 1.205052 0.328020 0.355412 0.498604
0.740587 0.000989 1.068053 0.769393 0.786553 0.812516
0.528904 -0.424775 1.193613 0.236416 0.233015 0.477253
0.488775 -0.380624 1.203117 0.484281 0.499651 0.739357
0.458309 0.000594 1.077469 0.521810 0.588364 0.653705
0.448167 -0.391195 1.207773 0.222532 0.244102 0.476627
0.300759 -0.442749 1.239779 0.805764 0.791211 0.913124
0.639357 -0.305316 1.183466 0.135659 0.124531 0.124902
0.448167 -0.391195 1.207773 0.222532 0.244102 0.476627
0.542526 -0.408093 1.188601 0.844139 0.871276 0.898727
0.542443 -0.058989 1.085822 0.525911 0.547192 0.574069
0.376649 -0.436736 1.224105 0.431221 0.409482 0.562000
0.576169 -0.470038 1.214899 0.764046 0.773276 0.951986
0.573208 -0.375611 1.174513 0.781684 0.795532 0.945922
0.461377 -0.453577 1.219527 0.850823 0.868178 0.910816
0.565961 -0.442179 1.198694 0.753496 0.800473 0.944130
0.611834 -0.442942 1.223150 0.250619 0.270394 0.470457
0.330865 -0.418342 1.231394 0.734141 0.752578 0.802275
0.574829 -0.501239 1.234287 0.841970 0.860819 0.919818
0.569949 -0.425809 1.189957 0.228315 0.247158 0.538524
0.476074 -0.380627 1.201267 0.252255 0.265720 0.541931
0.330636 -0.419818 1.231302 0.758232 0.768708 0.807337
0.466111 -0.509477 1.247766 0.894394 0.921844 0.988492
0.466111 -0.509477 1.247766 0.894394 0.921844 0.988492
0.356542 -0.495978 1.256498 0.917956 0.929720 0.957000
0.920473 -0.420916 1.377440 0.579071 0.610643 0.629617
0.486736 -0.479588 1.228479 0.785538 0.814259 0.938521
0.386533 -0.479896 1.244239 0.442486 0.434248 0.613673
0.542450 -0.380628 1.179987 0.832059 0.851804 0.896579
0.490730 -0.396090 1.200736 0.651682 0.671163 0.772296
0.336021 -0.485376 1.253839 0.754294 0.748182 0.977106
0.477315 -0.434574 1.204934 0.852986 0.868324 0.956831
0.539783 -0.432722 1.197269 0.869398 0.898052 0.955911
0.453223 -0.436029 1.210369 0.382328 0.387760 0.586170
0.462645 -0.465453 1.226197 0.873160 0.885670 0.950219
0.467044 0.074285 1.063926 0.010475 0.036266 0.048031
0.453223 -0.436029 1.210369 0.382328 0.387760 0.586170
0.451766 -0.394201 1.206215 0.252439 0.289183 0.470989
0.353916 -0.471866 1.246425 0.847774 0.856101 0.941931
0.451766 -0.394201 1.206215 0.252439 0.289183 0.470989
0.544747 -0.396166 1.181630 0.278118 0.262977 0.491455
0.462440 -0.478883 1.232264 0.327868 0.324811 0.550325
0.384317 -0.480382 1.244293 0.875226 0.880494 0.961384
0.299161 -0.411808 1.241263 0.262809 0.238164 0.521876
0.560621 -0.439104 1.198659 0.402972 0.412026 0.645457
0.585804 -0.371215 1.199953 0.287022 0.314473 0.467414
0.533289 -0.416507 1.194125 0.753719 0.764139 0.796857
0.543255 -0.431636 1.196006 0.369531 0.378379 0.562432
0.340120 -0.412390 1.231365 0.668654 0.677259 0.819446
0.349737 -0.517134 1.266150 0.484478 0.491050 0.580236
0.377156 -0.427890 1.222555 0.186109 0.199269 0.389998
0.585804 -0.371215 1.199953 0.287022 0.314473 0.467414
0.542578 -0.118581 1.098249 0.393533 0.420033 0.455327
0.377368 -0.419562 1.223203 0.664424 0.688371 0.732135
0.542682 -0.514245 1.247962 0.457930 0.462099 0.610445
0.546046 -0.496061 1.231814 0.858601 0.857764 0.929275
0.328730 -0.056597 1.066148 0.393371 0.403315 0.624763
0.545041 -0.111577 1.087687 0.006375 0.006647 0.026043
0.468802 -0.385213 1.204309 0.795064 0.813140 0.868221
0.503790 -0.396540 1.200030 0.808393 0.827293 0.863295
0.562175 -0.393371 1.179641 0.507574 0.523261 0.620603
0.513588 -0.428701 1.199460 0.417672 0.411657 0.635925
0.545286 -0.408684 1.188550 0.509370 0.507607 0.577598
0.354836 -0.437578 1.227713 0.808020 0.810199 0.931529
0.565484 -0.381535 1.174920 0.792820 0.783406 0.925010
0.486811 -0.427320 1.203187 0.306448 0.309156 0.506254
0.562244 -0.375075 1.172879 0.357811 0.348226 0.553514
0.049067 -0.363643 1.258805 0.463548 0.487147 0.508695
0.379311 -0.442474 1.226190 0.433402 0.422353 0.615669
0.379311 -0.442474 1.226190 0.433402 0.422353 0.615669
0.573733 -0.403638 1.184450 0.703345 0.727543 0.900104
0.679445 -0.389937 1.301240 0.063687 0.082907 0.247504
0.908701 -0.359166 1.355441 0.799785 0.812544 0.835498
0.545286 -0.408684 1.188550 0.509370 0.507607 0.577598
0.409343 -0.424000 1.214808 0.347397 0.347290 0.438163
0.615547 -0.416118 1.221786 0.356258 0.353346 0.473357
0.454389 -0.388167 1.205349 0.218376 0.210520 0.381553
0.044291 -0.363888 1.259578 0.306749 0.303010 0.336210
0.670815 -0.044890 1.128664 0.430220 0.509416 0.578218
0.298946 -0.436805 1.244100 0.729075 0.716556 0.887269
0.603129 -0.491356 1.235115 0.769115 0.786614 0.878982
-0.148643 -0.370166 1.248224 0.626829 0.638746 0.654126
0.909846 -0.117624 1.177888 0.018707 0.029592 0.046158
0.172670 -0.248992 1.104534 0.134585 0.219970 0.337028
0.482843 -0.462127 1.220487 0.835518 0.850631 0.891901
0.104129 -0.322658 1.090739 0.588014 0.591936 0.607622
0.364720 -0.403290 1.231813 0.589936 0.629152 0.716784
0.521530 -0.431730 1.199358 0.877169 0.897975 0.958847
0.195619 -0.179603 1.071612 0.332355 0.351774 0.642887
0.569977 -0.421589 1.188709 0.799652 0.817950 0.921283
0.456089 -0.427055 1.207174 0.755188 0.764910 0.849773
0.465456 -0.478547 1.231678 0.856849 0.864692 0.903908
0.644030 -0.302168 1.179602 0.053158 0.049237 0.049507
0.537774 -0.409039 1.191788 0.858918 0.867243 0.894067
0.307214 -0.509934 1.269623 0.127938 0.169973 0.278714
0.315987 -0.463990 1.246264 0.745429 0.737563 0.893505
0.450900 -0.389430 1.206457 0.743364 0.780665 0.867339
0.640378 -0.319111 1.183402 0.096633 0.106383 0.124010
0.340411 -0.429990 1.228572 0.365242 0.377661 0.479366
0.519527 -0.440127 1.205186 0.867122 0.894083 0.959238
0.803585 -0.717062 1.915890 0.446551 0.455270 0.548063
0.490795 -0.496412 1.238333 0.830105 0.865005 0.905381
0.607331 -0.454545 1.227990 0.269877 0.264403 0.501351
0.492815 -0.436962 1.205872 0.839557 0.842817 0.961869
0.531277 -0.387514 1.189723 0.690358 0.685665 0.902427
0.459137 -0.477735 1.231839 0.840000 0.875067 0.943152
0.594644 -0.466226 1.231432 0.503075 0.563291 0.708471
0.479518 -0.486790 1.235501 0.775309 0.787108 0.842410
-0.282571 -0.502542 1.351477 0.135532 0.131610 0.147296
0.803585 -0.717062 1.915890 0.446551 0.455270 0.548063
0.606128 -0.446003 1.227915 0.626487 0.631556 0.854551
0.371572 -0.474679 1.242167 0.818243 0.824980 0.872935
0.838315 -0.437756 1.386215 0.785590 0.804015 0.843746
0.477780 -0.423672 1.204970 0.340213 0.363742 0.510594
0.447861 -0.197895 1.096618 0.822911 0.835694 0.829867
0.519231 -0.471824 1.222542 0.435066 0.435866 0.580646
0.513034 -0.418916 1.198668 0.676078 0.698823 0.784181
0.361000 -0.480019 1.247180 0.706313 0.683110 0.898338
0.313046 -0.421488 1.237051 0.619790 0.635388 0.754925
0.477780 -0.423672 1.204970 0.340213 0.363742 0.510594
0.626756 -0.319500 1.184274 0.082139 0.093904 0.109590
0.386786 -0.506868 1.257060 0.862148 0.895195 0.939199
0.449395 -0.399183 1.207050 0.719892 0.754969 0.880635
0.413772 -0.426139 1.216439 0.333439 0.324556 0.458377
0.413409 -0.411737 1.215290 0.354320 0.356963 0.411811
0.413409 -0.411737 1.215290 0.354320 0.356963 0.411811
0.413073 -0.478157 1.238983 0.807378 0.842007 0.895866
0.371572 -0.474679 1.242167 0.818243 0.824980 0.872935
0.308770 -0.408471 1.241694 0.328875 0.317698 0.598849
0.110492 -0.313897 1.089017 0.122250 0.122345 0.140541
0.308770 -0.408471 1.241694 0.328875 0.317698 0.598849
-0.089549 -0.415389 1.333282 0.658848 0.725280 0.768135
0.532958 -0.438926 1.201306 0.774709 0.762526 0.941583
-0.142347 -0.455234 1.360079 0.327561 0.340938 0.356624
0.097703 -0.238609 1.074414 0.710928 0.724566 0.758233
0.376935 -0.404943 1.225234 0.730977 0.740560 0.759722
0.449799 -0.433331 1.210313 0.849866 0.861241 0.900994
0.568991 -0.383268 1.175591 0.640778 0.640882 0.897887
0.231853 -0.638548 1.512462 0.031727 0.043492 0.059178
0.417705 -0.510559 1.255875 0.874775 0.875389 0.956764
0.254832 -0.120990 1.067855 0.235907 0.259088 0.630586
0.818614 -0.153343 1.142365 0.013163 0.032605 0.061257
0.941409 -0.114104 1.192375 0.006240 0.017168 0.053539
0.941409 -0.114104 1.192375 0.006240 0.017168 0.053539
0.414218 -0.401923 1.213467 0.443105 0.450576 0.510003
0.414218 -0.401923 1.213467 0.443105 0.450576 0.510003
0.499244 -0.395003 1.201038 0.712404 0.765204 0.838161
0.499244 -0.395003 1.201038 0.712404 0.765204 0.838161
-0.212342 -0.495739 1.355953 0.037225 0.041147 0.056833
0.476281 -0.395914 1.200833 0.332309 0.359429 0.502318
0.921051 -0.089442 1.181269 0.319873 0.374692 0.407359
0.353819 -0.479667 1.249382 0.737512 0.737445 0.959606
0.560817 -0.137203 1.094379 0.003596 0.013453 0.033060
0.491865 -0.426313 1.200394 0.470614 0.486544 0.558805
0.511838 -0.409634 1.200412 0.563628 0.568221 0.759089
0.382379 -0.419877 1.222559 0.661383 0.679627 0.860215
0.313181 -0.432475 1.233441 0.655355 0.670325 0.855949
0.433761 -0.217834 1.098743 0.078431 0.121606 0.602692
0.419937 0.060143 1.060044 0.922687 0.925364 0.933207
0.429559 -0.513147 1.255144 0.815813 0.837098 0.938286
0.556340 -0.028085 1.089468 0.010036 0.045161 0.098519
-0.224926 -0.331225 1.217823 0.174608 0.190294 0.209902
-0.215485 -0.071031 1.125082 0.031386 0.023234 0.039619
0.925176 -0.451856 1.398019 0.665818 0.704562 0.755095
0.604129 -0.428572 1.225283 0.689400 0.706583 0.804322
0.557702 -0.125365 1.087306 0.398213 0.410493 0.426179
0.568991 -0.383268 1.175591 0.640778 0.640882 0.897887
0.525730 -0.486120 1.228547 0.386091 0.396049 0.606735
0.368680 -0.453556 1.233124 0.887135 0.896618 0.934618
0.477648 -0.387339 1.203138 0.630411 0.676661 0.771197
-0.215485 -0.071031 1.125082 0.031386 0.023234 0.039619
0.477453 -0.387185 1.202228 0.623798 0.665119 0.774491
0.487876 -0.407273 1.201006 0.767369 0.781786 0.889114
0.487876 -0.407273 1.201006 0.767369 0.781786 0.889114
0.789683 -0.323256 1.197255 0.698106 0.332532 0.050429
0.403444 -0.433806 1.217343 0.829667 0.843633 0.906751
0.492302 -0.381207 1.200638 0.252646 0.261921 0.480303
0.403444 -0.433806 1.217343 0.829667 0.843633 0.906751
0.410919 -0.482021 1.240196 0.816174 0.809445 0.931146
0.593901 -0.481811 1.233154 0.640446 0.677382 0.749596
0.350344 -0.404973 1.231492 0.514474 0.526187 0.774715
0.326093 -0.478345 1.251514 0.918008 0.925824 0.949836
0.783552 -0.295131 1.189866 0.576202 0.327724 0.163409
0.392786 -0.491861 1.249137 0.882945 0.898082 0.933687
0.509339 -0.133296 1.099514 0.001425 0.010508 0.073037
0.465583 -0.384976 1.203568 0.733804 0.745089 0.807462
0.606715 -0.307043 1.188371 0.056505 0.048662 0.047158
0.447055 -0.409534 1.208743 0.861963 0.858083 0.892755
0.418323 -0.401351 1.213417 0.803748 0.835815 0.873705
0.502272 -0.394917 1.195157 0.781629 0.797524 0.841454
0.502489 -0.419025 1.198998 0.795890 0.799891 0.855005
0.612417 -0.458856 1.226550 0.694844 0.714483 0.879007
0.381203 -0.474295 1.242518 0.868427 0.863327 0.930170
0.350344 -0.404973 1.231492 0.514474 0.526187 0.774715
0.393399 -0.492628 1.249155 0.892585 0.911676 0.944366
0.341305 -0.431206 1.228767 0.742905 0.761221 0.879953
0.395452 -0.504962 1.255151 0.801914 0.809742 0.872609
0.479097 -0.448064 1.214199 0.455405 0.483070 0.714611
0.557626 -0.380553 1.175225 0.793714 0.805815 0.938015
0.507518 -0.465205 1.220047 0.861178 0.881131 0.940022
0.516211 -0.381810 1.195775 0.738259 0.752011 0.930324
0.606661 -0.476163 1.232075 0.758545 0.762858 0.910862
0.506311 -0.410217 1.198751 0.716733 0.755905 0.840322
0.836251 -0.396468 1.358744 0.373985 0.440290 0.640789
0.433095 -0.507493 1.251689 0.861822 0.882430 0.915192
-0.074213 -0.396674 1.320756 0.666667 0.670588 0.686275
0.493063 -0.469274 1.223431 0.299978 0.304952 0.511701
0.303951 -0.466784 1.249866 0.472262 0.482184 0.624957
0.616576 -0.298404 1.186421 0.577745 0.535120 0.539885
0.470797 -0.410874 1.204366 0.752938 0.765859 0.852505
0.478156 -0.445055 1.212858 0.767163 0.790716 0.930135
0.535736 -0.389440 1.186584 0.738913 0.735893 0.951081
0.423530 -0.443216 1.219753 0.858608 0.875412 0.927224
0.423530 -0.443216 1.219753 0.858608 0.875412 0.927224
0.406554 -0.466494 1.234301 0.856762 0.854048 0.943676
0.347187 -0.475829 1.247721 0.868428 0.891999 0.961111
0.529504 -0.456818 1.212167 0.837427 0.850072 0.963092
-0.197131 -0.101682 1.121489 0.019495 0.024406 0.072117
0.385830 -0.418851 1.221334 0.681678 0.707421 0.758852
0.385830 -0.418851 1.221334 0.681678 0.707421 0.758852
0.326904 -0.459672 1.243395 0.493258 0.499538 0.570104
0.326904 -0.459672 1.243395 0.493258 0.499538 0.570104
0.539261 -0.472997 1.218707 0.802595 0.812225 0.958135
0.601689 -0.466678 1.231050 0.283609 0.293710 0.483947
0.351468 -0.472165 1.244596 0.504883 0.501824 0.615707
0.510208 -0.477878 1.226061 0.850729 0.869782 0.934378
0.547143 -0.377792 1.166252 0.743219 0.763019 0.841720
0.593047 -0.457376 1.230013 0.105528 0.112946 0.342363
0.569054 -0.428942 1.192451 0.755625 0.777280 0.975245
0.783054 -0.327351 1.196278 0.537109 0.293022 0.127303
0.510849 -0.467139 1.219958 0.423784 0.426630 0.595203
0.422363 -0.421047 1.213368 0.661703 0.681837 0.748222
0.457542 -0.392378 1.203905 0.653342 0.675312 0.789321
0.423524 -0.408185 1.213562 0.617352 0.620961 0.816648
0.627593 -0.439428 1.219878 0.329526 0.326749 0.586061
0.443720 -0.417592 1.208410 0.780108 0.792184 0.828433
0.510849 -0.467139 1.219958 0.423784 0.426630 0.595203
0.052261 -0.127729 1.041892 0.502897 0.514549 0.513074
0.473873 -0.473669 1.228532 0.864577 0.885103 0.945643
0.794451 -0.704364 1.908819 0.454670 0.466630 0.558688
0.365436 -0.422535 1.225376 0.202512 0.222569 0.367121
0.547041 -0.379595 1.176872 0.434550 0.423635 0.621778
0.084646 -0.102301 1.021702 0.489988 0.505822 0.519459
0.523649 -0.382724 1.192361 0.752132 0.752861 0.926213
0.355400 -0.402222 1.232797 0.559358 0.574838 0.756850
0.399409 -0.437567 1.219757 0.441153 0.419774 0.551337
0.470524 -0.382476 1.202978 0.252220 0.270108 0.529713
0.016740 -0.227855 1.055061 0.491780 0.462096 0.940622
0.538586 -0.298872 1.208185 0.695117 0.709469 0.869669
0.355722 -0.482314 1.249164 0.321766 0.305556 0.533162
0.569968 -0.415898 1.186622 0.724401 0.730655 0.929769
0.425939 -0.412212 1.212979 0.707679 0.726174 0.823188
0.537193 -0.417849 1.193134 0.595025 0.612188 0.846558
0.458514 -0.381889 1.205210 0.616628 0.615130 0.784085
0.458514 -0.381889 1.205210 0.616628 0.615130 0.784085
0.586139 0.029769 1.061750 0.738354 0.749410 0.753994
0.904425 -0.102206 1.174702 0.068846 0.151648 0.235237
0.090038 -0.355836 1.105774 0.074443 0.062778 0.067208
0.550416 -0.118781 1.090704 0.001048 0.016426 0.021199
0.503793 -0.445738 1.209872 0.524010 0.537578 0.623569
0.131212 -0.432884 1.247295 0.808479 0.867997 0.902763
0.535310 -0.394858 1.189312 0.753493 0.792839 0.929125
0.328690 -0.512979 1.267015 0.833986 0.847420 0.889706
0.346938 -0.440229 1.229484 0.252026 0.236079 0.503629
0.347304 -0.411253 1.230872 0.591289 0.628173 0.750710
0.312298 -0.406592 1.239581 0.786819 0.796408 0.849987
0.332173 -0.427975 1.231229 0.739895 0.741894 0.865494
0.442731 -0.428818 1.210447 0.287539 0.281878 0.462889
0.595485 -0.449741 1.228852 0.130089 0.155371 0.354206
0.538507 -0.501181 1.235084 0.841205 0.864734 0.954990
0.433325 -0.469106 1.231309 0.424539 0.413220 0.635648
0.409725 -0.507691 1.255943 0.864547 0.888280 0.945452
0.572258 -0.401106 1.183930 0.764279 0.795046 0.929920
0.409725 -0.507691 1.255943 0.864547 0.888280 0.945452
0.335910 -0.414385 1.230579 0.718423 0.730856 0.813568
0.349852 -0.439302 1.228436 0.782121 0.787411 0.981935
0.510692 -0.204801 1.101625 0.984364 0.992207 0.992529
0.543255 -0.431636 1.196006 0.369531 0.378379 0.562432
0.629686 -0.298626 1.182832 0.092699 0.083724 0.082593
0.499512 -0.420767 1.199297 0.798366 0.807638 0.874308
0.617746 -0.432916 1.220803 0.824971 0.831382 0.935629
0.771645 -0.300117 1.187785 0.889634 0.676155 0.566465
0.397494 -0.437023 1.219961 0.714736 0.717251 0.934759
0.775428 -0.326606 1.193740 0.788278 0.714948 0.694816
0.427147 -0.419167 1.211725 0.637380 0.686673 0.892489
0.366003 -0.477455 1.245031 0.883341 0.890919 0.955638
0.501555 -0.434267 1.204110 0.889880 0.897723 0.940273
0.360049 -0.434344 1.224952 0.335552 0.328759 0.529035
0.550761 -0.451578 1.206350 0.877667 0.891473 0.936840
0.404594 -0.482248 1.242252 0.735221 0.750640 0.918496
